# .PCD v.7 - Point Cloud Data file format
VERSION .7
FIELDS x y z
SIZE 4 4 4
TYPE F F F
COUNT 1 1 1
WIDTH 1449
HEIGHT 1
POINTS 1449
DATA ascii
-275.923759 -80.021347 -72.049095
-283.791720 -81.935712 -71.433569
-287.972069 -82.376471 -69.674837
-309.999991 -89.550236 -72.457813
-314.948211 -90.144585 -70.556435
-325.113560 -92.637319 -69.809340
-330.531378 -93.308007 -67.777034
-336.121750 -94.000056 -65.679999
-347.652471 -96.783632 -64.723329
-347.854216 -95.452452 -61.278972
-360.176261 -98.380120 -60.140053
-360.384869 -97.003659 -56.578531
-366.975410 -97.819522 -54.106318
-373.798031 -98.664115 -51.547048
-374.013985 -97.239183 -47.860111
-388.190337 -100.445781 -46.148274
-388.414172 -98.968840 -42.326766
-388.638008 -97.491899 -38.505258
-396.243788 -98.377502 -35.513260
-396.471784 -96.873107 -31.620714
-396.699780 -95.368711 -27.728168
-404.602319 -96.230873 -24.475370
-397.155773 -92.359920 -19.943077
-413.046802 -95.563840 -17.054120
-413.283602 -94.001355 -13.011270
-413.520402 -92.438869 -8.968420
-413.757202 -90.876384 -4.925570
-413.994002 -89.313899 -0.882720
-422.548159 -90.090807 3.026653
-422.789621 -88.497562 7.149093
-414.704402 -84.626443 11.245829
-423.272545 -85.311070 15.393974
-423.514007 -83.717825 19.516415
-423.755469 -82.124579 23.638855
-423.996931 -80.531334 27.761296
-424.238392 -78.938088 31.883736
-424.479854 -77.344843 36.006177
-424.721316 -75.751597 40.128617
-424.962778 -74.158352 44.251058
-416.835603 -70.564076 47.631478
-417.072403 -69.001591 51.674328
-417.309203 -67.439106 55.717178
-417.546003 -65.876621 59.760028
-401.943696 -60.767616 61.800381
-402.171692 -59.263220 65.692927
-402.399689 -57.758825 69.585472
-395.129237 -54.660618 72.318474
-395.353072 -53.183677 76.139982
-381.356398 -48.791505 77.495757
-381.572351 -47.366573 81.182694
-368.520558 -43.321681 82.320817
-344.715803 -37.293644 81.044915
-328.808284 -32.946104 80.985448
-309.666898 -28.117264 79.914040
-296.733453 -24.565953 79.906897
-284.823824 -21.295765 79.900319
-273.821071 -18.274591 79.894242
-266.990438 -16.051230 80.754357
-257.282670 -13.398088 80.718067
-251.235643 -11.417977 81.508851
-239.813107 -8.623640 80.652761
-234.541949 -6.876978 81.393281
-229.495585 -5.204805 82.102220
-224.659935 -3.602454 82.781558
-217.711481 -1.730151 82.689220
-211.172581 0.031795 82.602325
-205.008062 1.692862 82.520405
-199.186665 3.261472 82.443044
-193.680519 4.745136 82.369873
-190.208719 5.929564 82.942079
-185.172924 7.280040 82.859138
-181.992936 8.371154 83.398748
-177.369626 9.605093 83.307900
-172.970394 10.779227 83.221454
-168.779335 11.897800 83.139099
-164.782014 12.964666 83.060551
-160.965301 13.983328 82.985552
-158.545539 14.837376 83.455232
-155.003094 15.778304 83.374362
-151.611611 16.679134 83.296938
-149.458422 17.447577 83.735944
-146.297340 18.283165 83.653734
-144.288908 19.003905 84.073060
-140.350018 19.855257 83.499065
0.000000 0.000000 0.000000
-166.018415 -53.660946 -72.894987
-169.479551 -54.485292 -72.529918
-173.066780 -55.339671 -72.151549
-180.529923 -57.814353 -72.910372
-184.567561 -58.611790 -72.120336
-188.733145 -59.614388 -71.704184
-197.511513 -62.104478 -71.663800
-206.938611 -65.372910 -72.938371
-207.105268 -64.429650 -70.741039
-217.379663 -67.947252 -72.031281
-222.956962 -69.322389 -71.546741
-228.794289 -70.761638 -71.039610
-237.984652 -73.585175 -71.477608
-244.555212 -75.219012 -70.937382
-254.944032 -78.395909 -71.399588
-266.166229 -81.827653 -71.898871
-270.250939 -82.234304 -70.212420
-274.447874 -82.652127 -68.479634
-296.367436 -90.146160 -71.209024
-306.210619 -92.655885 -70.537474
-311.480701 -93.286133 -68.595766
-316.916001 -93.936140 -66.593186
-322.524411 -94.606848 -64.526825
-334.037616 -97.469724 -63.580220
-334.294734 -96.014459 -60.190170
-334.551853 -94.559194 -56.800121
-346.865820 -97.517833 -55.558483
-353.477628 -98.308538 -53.122430
-360.322264 -99.127087 -50.600595
-360.597491 -97.569330 -46.971791
-367.692406 -98.389301 -44.294522
-367.972566 -96.803625 -40.600680
-375.331554 -97.624586 -37.758282
-382.964133 -98.476069 -34.810209
-383.254709 -96.831441 -30.979039
-383.545284 -95.186814 -27.147868
-383.835860 -93.542187 -23.316698
-384.126435 -91.897559 -19.485528
-392.070167 -92.656694 -16.135511
-392.366246 -90.980916 -12.231775
-400.622428 -91.737010 -8.677035
-400.924223 -90.028878 -4.697930
-409.511422 -90.781114 -0.924892
-409.819159 -89.039355 3.132548
-410.126896 -87.297595 7.189989
-410.434632 -85.555835 11.247429
-410.742369 -83.814076 15.304870
-411.050106 -82.072316 19.362310
-411.357843 -80.330557 23.419750
-411.665580 -78.588797 27.477191
-411.973317 -76.847037 31.534631
-412.281054 -75.105278 35.592072
-412.588791 -73.363518 39.649512
-412.896528 -71.621758 43.706952
-413.204265 -69.879999 47.764393
-405.149361 -66.115030 51.009535
-405.451156 -64.406898 54.988640
-405.752952 -62.698766 58.967745
-390.228519 -57.360383 60.969049
-390.519095 -55.715756 64.800219
-390.809670 -54.071128 68.631390
-383.604458 -50.800794 71.318048
-383.889730 -49.186180 75.079301
-369.955207 -44.605610 76.407542
-370.230434 -43.047853 80.036346
-357.234547 -38.831898 81.150785
-333.477309 -32.614558 79.884619
-312.565440 -27.141860 78.770101
-298.510514 -23.132087 78.756273
-285.614032 -19.452811 78.743585
-273.738439 -16.064788 78.731901
-262.767130 -12.934750 78.721107
-252.600607 -10.034312 78.711104
-243.153451 -7.339105 78.701810
-237.278192 -5.306030 79.487485
-228.868983 -2.918865 79.452770
-223.624967 -1.092836 80.179289
-216.091387 1.035082 80.124511
-209.020011 3.032447 80.073094
-204.594168 4.592825 80.728940
-198.202282 6.389208 80.662385
-192.172900 8.083713 80.599603
-186.476034 9.684766 80.540284
-181.084916 11.199893 80.484149
-177.694544 12.424755 81.052084
-172.759779 13.804639 80.985206
-168.072174 15.115412 80.921677
-163.613613 16.362138 80.861252
-159.367709 17.549400 80.803710
-156.688627 18.540709 81.304426
-152.763869 19.632615 81.238919
-149.015116 20.675556 81.176349
-145.430787 21.672752 81.116523
-142.000296 22.627149 81.059265
-138.713949 23.541443 81.004413
-136.634691 24.333600 81.443570
-133.568435 25.182325 81.382773
-131.627281 25.926133 81.802219
-129.737278 26.650339 82.210613
0.000000 0.000000 0.000000
-179.384864 -59.468861 -72.980663
-182.988181 -60.224572 -72.577786
-186.761386 -60.662086 -71.401774
-212.302104 -67.566922 -71.846106
-222.335001 -69.930883 -71.278084
-227.697498 -71.087930 -70.747554
-239.058890 -74.651414 -71.993797
-245.204517 -76.003977 -71.442361
-251.650680 -77.422684 -70.863960
-258.419977 -78.912507 -70.256564
-269.171546 -81.900248 -70.616453
-276.861863 -83.609393 -69.961835
-284.974751 -85.412452 -69.271247
-297.946021 -88.979227 -69.624879
-307.279237 -91.073677 -68.873419
-317.179859 -93.295458 -68.076274
-327.701254 -95.656545 -67.229148
-333.290908 -96.150540 -65.158462
-333.446171 -94.664646 -61.904686
-345.021867 -97.187285 -60.812730
-345.182239 -95.652509 -57.451914
-357.550911 -98.294562 -56.171348
-357.716738 -96.707579 -52.696210
-364.309303 -97.262497 -50.194930
-371.134018 -97.836955 -47.605570
-371.305684 -96.194088 -44.008059
-385.530741 -99.048775 -42.143321
-385.708673 -97.345944 -38.414503
-393.311771 -97.953989 -35.461758
-393.493011 -96.219505 -31.663625
-393.674250 -94.485020 -27.865492
-401.572234 -95.050394 -24.657010
-401.756907 -93.283057 -20.786936
-409.963424 -93.836140 -17.379846
-410.151662 -92.034681 -13.435054
-410.339899 -90.233223 -9.490263
-410.528137 -88.431764 -5.545471
-410.716374 -86.630305 -1.600679
-419.260835 -87.063306 2.251201
-419.452778 -85.226382 6.273653
-419.644721 -83.389458 10.296105
-419.836665 -81.552535 14.318557
-428.735871 -81.892258 18.567483
-428.931669 -80.018445 22.670715
-420.412495 -76.041764 26.385913
-420.604439 -74.204840 30.408365
-420.796382 -72.367917 34.430817
-420.988326 -70.530993 38.453269
-421.180269 -68.694069 42.475721
-421.372212 -66.857146 46.498174
-421.564156 -65.020222 50.520626
-421.756099 -63.183298 54.543078
-413.539939 -59.608424 57.571199
-413.728177 -57.806965 61.515990
-413.916415 -56.005507 65.460782
-398.205235 -51.122909 67.087837
-398.386474 -49.388425 70.885970
-398.567714 -47.653940 74.684103
-391.224560 -44.558192 77.178871
-391.402492 -42.855361 80.907689
-377.313999 -38.693737 81.904854
-364.183980 -34.815238 82.834179
-351.917841 -31.191922 83.702359
-314.326067 -23.634596 78.803090
-296.194421 -19.420785 77.652110
-283.900959 -16.244325 77.552601
-276.281239 -13.859556 78.377449
-265.506746 -11.091214 78.256905
-258.802565 -8.978221 79.014111
-249.281775 -6.545813 78.878150
-240.411641 -4.279637 78.751481
-234.863683 -2.506606 79.430211
-224.373613 -0.182179 78.522452
-219.507981 1.394254 79.163452
-212.529561 3.167006 79.042223
-205.962461 4.835268 78.928139
-201.826603 6.193520 79.511918
-193.924853 7.893222 78.719022
-190.234281 9.121547 79.274708
-186.675756 10.305922 79.810512
-179.843282 11.746139 79.062081
-176.642437 12.825626 79.574203
-170.476063 14.112142 78.870403
-167.581688 15.101085 79.360801
-163.372882 16.158058 79.261673
-160.701171 17.076838 79.726957
-156.808654 18.048739 79.623256
-151.862235 19.048768 78.990570
-149.532093 19.865583 79.429399
-147.268625 20.659026 79.855672
-143.958166 21.480800 79.757255
-139.732563 22.312373 79.168327
-136.727730 23.062633 79.088275
-134.811902 23.751228 79.485344
-132.945903 24.421914 79.872086
-129.294021 25.120963 79.321302
-127.567147 25.749323 79.695576
-124.180390 26.390348 79.169278
-119.416673 27.460116 78.787329
0.000000 0.000000 0.000000
-211.592403 -67.417844 -71.739771
-216.515225 -68.481342 -71.302675
-226.968263 -71.173005 -71.276689
-232.577780 -72.394726 -70.799172
-238.448825 -73.673407 -70.299392
-244.600127 -75.013126 -69.775754
-257.685780 -79.082782 -71.200329
-264.806054 -80.664894 -70.659467
-272.302090 -82.330499 -70.090063
-280.204439 -84.086387 -69.489794
-284.396280 -84.348985 -67.779360
-306.541818 -91.374800 -70.478549
-311.504495 -91.770101 -68.629276
-316.618023 -92.177419 -66.723790
-327.148383 -94.517246 -65.923896
-332.755330 -94.987771 -63.884295
-344.336190 -97.535511 -62.951518
-344.522581 -95.975257 -59.603801
-356.897655 -98.643252 -58.493688
-357.090386 -97.029924 -55.032095
-363.700468 -97.584630 -52.627590
-370.543317 -98.158869 -50.138413
-377.631450 -98.753692 -47.560011
-384.978294 -99.370225 -44.887499
-385.185095 -97.639127 -41.173214
-392.808923 -98.246403 -38.332300
-393.019567 -96.483125 -34.548970
-400.936191 -97.080007 -31.528776
-401.150826 -95.283331 -27.673787
-401.365460 -93.486655 -23.818798
-409.596059 -94.037209 -20.533130
-409.814838 -92.205846 -16.603714
-410.033616 -90.374482 -12.674297
-410.252395 -88.543118 -8.744881
-410.471173 -86.711754 -4.815465
-427.731681 -89.489898 -1.304180
-419.266153 -85.272354 2.915775
-428.186812 -85.680060 6.870297
-428.414377 -83.775141 10.957535
-428.641943 -81.870222 15.044773
-428.869508 -79.965302 19.132011
-429.097074 -78.060383 23.219250
-429.324640 -76.155464 27.306488
-429.552205 -74.250545 31.393726
-429.779771 -72.345626 35.480964
-430.007336 -70.440706 39.568203
-430.234902 -68.535787 43.655441
-430.462467 -66.630868 47.742679
-430.690033 -64.725949 51.829917
-430.917599 -62.821030 55.917156
-422.389351 -59.128509 59.010608
-422.612436 -57.261091 63.017381
-414.409186 -53.747205 65.914027
-414.627964 -51.915841 69.843444
-414.846743 -50.084477 73.772860
-406.945960 -46.773079 76.410921
-407.160595 -44.976403 80.265910
-392.009514 -40.512875 81.398181
-392.216315 -38.781776 85.112466
-378.125013 -34.693564 86.034199
-352.537400 -28.884338 84.348013
-300.978314 -19.243042 76.653898
-292.490883 -16.590205 77.605432
-276.694702 -12.934242 76.709579
-269.469929 -10.643540 77.587244
-259.225955 -7.997364 77.579150
-252.849215 -5.961177 78.383691
-243.769840 -3.629280 78.348535
-235.297135 -1.453197 78.315729
-229.997479 0.262955 79.034105
-219.943748 2.490084 78.256280
-215.283229 4.020302 78.931798
-210.809512 5.489185 79.580240
-202.270120 7.343254 78.841318
-196.311894 8.864713 78.799891
-192.557013 10.123029 79.397116
-187.125914 11.501847 79.342627
-181.978682 12.808598 79.290986
-177.093627 14.048789 79.241976
-174.004382 15.105014 79.776981
-168.033809 16.348846 79.151080
-165.235951 17.318125 79.662013
-161.158096 18.347356 79.608546
-157.265886 19.329731 79.557513
-153.546926 20.268379 79.508751
-149.989899 21.166155 79.462113
-147.730383 21.969445 79.917428
-143.321107 22.849327 79.374675
-140.191141 23.639315 79.333636
-138.200001 24.360775 79.763138
-135.274345 25.094871 79.715773
-132.462089 25.800512 79.670245
-129.756766 26.479322 79.626448
-128.033288 27.115573 80.022719
-124.643416 27.762346 79.543666
0.000000 0.000000 0.000000
-218.806213 -72.112185 -69.454270
-223.727450 -73.155113 -68.954285
-234.203825 -75.611447 -68.331108
-245.557598 -79.264338 -69.506988
-251.704619 -80.602432 -68.948594
-258.152243 -82.005962 -68.362893
-268.369693 -84.903267 -68.692437
-279.395960 -88.029923 -69.048069
-283.363023 -88.203040 -67.397706
-291.477583 -89.988914 -66.696983
-304.444966 -93.602949 -66.997417
-313.779911 -95.679834 -66.233206
-323.682368 -97.882981 -65.422535
-323.844500 -96.305963 -62.395419
-334.372927 -98.597808 -61.439018
-339.973573 -98.972297 -59.352105
-351.552134 -101.464950 -58.248394
-351.727600 -99.758233 -54.972319
-364.099846 -102.362411 -53.682080
-364.281282 -100.597638 -50.294566
-377.531270 -103.323079 -48.794170
-377.719095 -101.496160 -45.287367
-377.906919 -99.669242 -41.780564
-392.137850 -102.460274 -39.914650
-392.332530 -100.566675 -36.279851
-399.947569 -101.040414 -33.376116
-400.145868 -99.111615 -29.673751
-400.344167 -97.182816 -25.971385
-408.255191 -97.601435 -22.817398
-408.457246 -95.636102 -19.044906
-416.677643 -96.032941 -15.696299
-416.883598 -94.029664 -11.850972
-417.089554 -92.026388 -8.005646
-417.295510 -90.023111 -4.160320
-417.501466 -88.019834 -0.314994
-426.061747 -88.274546 3.468268
-426.271757 -86.231831 7.389297
-426.481768 -84.189117 11.310325
-435.394301 -84.372015 15.403024
-435.608529 -82.288278 19.402795
-435.822757 -80.204541 23.402566
-436.036985 -78.120804 27.402337
-427.531820 -73.975543 30.915466
-427.741830 -71.932828 34.836495
-427.951841 -69.890113 38.757523
-436.893896 -69.785857 43.401420
-437.108124 -67.702120 47.401191
-428.581872 -63.761969 50.520608
-437.536580 -63.534647 55.400733
-429.001893 -59.676539 58.362665
-420.796759 -55.967406 61.210226
-421.002715 -53.964129 65.055553
-421.208671 -51.960853 68.900879
-421.414627 -49.957576 72.746205
-413.508617 -46.502784 75.267393
-413.710671 -44.537452 79.039885
-406.094833 -41.247635 81.397214
-398.756968 -38.077894 83.668502
-391.682130 -35.021774 85.858375
-378.082348 -31.022109 86.564655
-353.351081 -25.478569 84.617003
-303.356420 -16.490008 76.536138
-295.099073 -13.859778 77.341936
-283.450027 -10.846872 77.175178
-272.676898 -8.060512 77.020958
-262.684472 -5.476074 76.877915
-253.390854 -3.072375 76.744875
-244.725214 -0.831096 76.620824
-236.625984 1.263687 76.504882
-231.552241 2.954512 77.139527
-226.690355 4.574736 77.747671
-217.444310 6.580624 76.895045
-213.146173 8.034106 77.472148
-206.955679 9.615243 77.346218
-201.109755 11.108373 77.227297
-193.771433 12.665180 76.484810
-190.342604 13.858451 77.008266
-187.032220 15.010502 77.513640
-180.654006 16.333052 76.811175
-177.665797 17.387714 77.294889
-171.889632 18.571594 76.632886
-169.178881 19.541706 77.096680
-165.227415 20.544595 77.004394
-161.453149 21.502509 76.916247
-159.055804 22.372303 77.348545
-154.390592 23.294997 76.751303
-152.194304 24.102704 77.167635
-148.976798 24.914126 77.082802
-146.929079 25.672262 77.480437
-142.925850 26.440114 76.923263
-140.077425 27.158458 76.848161
-136.425469 27.854572 76.331732
-134.701432 28.514228 76.706418
-133.020017 29.157576 77.071841
-129.714544 29.771871 76.574934
-128.152693 30.377224 76.928857
0.000000 0.000000 0.000000
-236.175285 -79.151275 -68.978080
-242.308162 -80.554562 -68.446105
-248.740952 -82.026474 -67.888115
-255.496205 -83.572169 -67.302153
-269.933085 -88.366305 -68.616709
-277.811926 -90.209496 -68.002852
-290.388248 -93.950050 -68.397741
-299.434382 -96.089531 -67.732903
-304.237603 -96.391569 -65.943973
-314.117184 -98.702816 -65.174234
-314.282059 -97.023188 -62.202977
-324.786262 -99.426695 -61.291826
-330.375653 -99.805925 -59.257882
-341.927627 -102.419580 -58.204884
-342.106061 -100.601813 -54.989262
-348.265528 -101.019723 -52.747872
-354.634517 -101.451847 -50.430238
-361.223903 -101.898926 -48.032403
-368.045328 -102.361748 -45.550130
-368.236329 -100.415960 -42.108038
-375.305692 -100.860498 -39.475097
-382.633082 -101.321261 -36.746055
-382.831055 -99.304454 -33.178329
-390.434541 -99.744857 -30.281507
-390.636195 -97.690559 -26.647461
-390.837848 -95.636261 -23.013414
-391.039501 -93.581963 -19.379367
-391.241154 -91.527664 -15.745321
-407.150622 -94.275816 -12.829188
-407.360061 -92.142194 -9.054819
-407.569501 -90.008573 -5.280449
-407.778941 -87.874951 -1.506080
-407.988381 -85.741330 2.268289
-416.536197 -85.940730 6.034027
-416.749760 -83.765104 9.882702
-416.963323 -81.589478 13.731376
-417.176886 -79.413853 17.580051
-417.390449 -77.238227 21.428725
-426.298738 -77.270871 25.654869
-426.516589 -75.051554 29.580833
-426.734441 -72.832237 33.506797
-418.244701 -68.535725 36.823423
-418.458264 -66.360099 40.672097
-418.671827 -64.184473 44.520772
-418.885389 -62.008848 48.369446
-419.098952 -59.833222 52.218121
-419.312515 -57.657596 56.066795
-419.526078 -55.481971 59.915469
-411.339416 -51.603385 62.658198
-411.548856 -49.469764 66.432568
-411.758296 -47.336142 70.206937
-396.080832 -42.224508 71.471797
-396.282485 -40.170210 75.105843
-388.968222 -36.783408 77.421192
-381.916140 -33.518006 79.653546
-375.112390 -30.367592 81.807290
-362.014699 -26.267859 82.569985
-322.031187 -18.080637 77.446132
-293.986737 -12.113801 74.238485
-281.724297 -8.750611 74.134513
-270.407600 -5.646808 74.038560
-263.381189 -3.245616 74.795251
-250.205130 -0.105925 73.867264
-244.141047 1.998178 74.575030
-235.496031 4.354329 74.476080
-227.416077 6.556476 74.383598
-219.847537 8.619239 74.296970
-215.099837 10.303949 74.915425
-206.062041 12.376399 74.139183
-201.859668 13.889676 74.724610
-195.802753 15.530021 74.637319
-190.079872 17.079902 74.554841
-184.664134 18.546602 74.476790
-179.531461 19.936642 74.402819
-174.660223 21.255879 74.332615
-170.030944 22.509589 74.265899
-167.099868 23.611353 74.753913
-161.429561 24.839032 74.141937
-158.768597 25.853297 74.609141
-153.605437 26.957975 74.029177
-149.952652 27.947229 73.976533
-147.632066 28.850135 74.415623
-143.110778 29.800158 73.877929
-139.902475 30.669037 73.831692
-137.861091 31.479503 74.245835
-134.865014 32.285747 74.193772
-131.986588 33.060331 74.143754
-129.219015 33.805084 74.095662
-126.556014 34.521697 74.049388
-124.858373 35.213678 74.424765
-121.520881 35.876650 73.961893
-119.138349 36.517789 73.920492
-117.618063 37.149580 74.277490
-114.620043 37.733665 73.841978
-113.203049 38.330059 74.187685
-110.403300 38.868389 73.768704
0.000000 0.000000 0.000000
-186.149165 -70.502275 -68.900592
-197.230026 -73.692839 -68.727775
-201.274993 -74.384835 -67.930464
-234.134099 -83.499221 -66.879172
-239.717504 -84.808790 -66.329077
-245.561220 -86.179414 -65.753335
-251.683888 -87.615465 -65.150110
-261.329191 -90.631086 -65.369993
-271.718390 -93.879287 -65.606834
-279.177491 -95.670084 -64.936075
-295.101484 -101.190051 -66.139895
-303.871855 -103.344286 -65.426749
-313.159686 -105.625622 -64.671526
-313.414835 -103.889860 -61.857283
-323.275070 -106.257126 -60.970602
-328.566930 -106.587497 -59.034465
-339.380813 -109.153776 -58.015519
-339.656278 -107.279806 -54.977196
-351.190715 -109.953283 -53.791257
-351.475241 -108.017665 -50.652982
-363.804072 -110.807183 -49.279608
-364.098277 -108.805722 -46.034582
-370.737408 -109.220203 -43.605518
-377.610329 -109.649280 -41.090916
-377.914893 -107.577340 -37.731619
-385.039634 -107.984663 -35.066674
-385.349657 -105.875588 -31.647170
-392.740104 -106.259288 -28.822551
-393.055785 -104.111723 -25.340642
-400.726861 -104.469768 -22.346286
-401.048410 -102.282282 -18.799652
-401.369959 -100.094797 -15.253018
-401.691508 -97.907311 -11.706384
-402.013058 -95.719826 -8.159750
-409.999091 -95.925701 -4.783254
-418.293491 -96.139525 -1.276381
-418.627456 -93.867574 2.407201
-418.961422 -91.595622 6.090782
-427.595551 -91.728411 9.880769
-419.629353 -87.051719 13.457945
-419.963318 -84.779767 17.141527
-420.297283 -82.507816 20.825108
-428.957712 -82.461695 24.905166
-429.298252 -80.145016 28.661266
-429.638792 -77.828337 32.417365
-429.979332 -75.511658 36.173464
-430.319872 -73.194979 39.929564
-430.660412 -70.878300 43.685663
-431.000952 -68.561621 47.441762
-422.969007 -64.332203 50.293760
-423.302972 -62.060251 53.977342
-423.636937 -59.788300 57.660923
-415.896606 -55.805166 60.265340
-416.224246 -53.576248 63.879151
-408.765593 -49.782632 66.319565
-409.087143 -47.595146 69.866199
-401.894857 -43.979916 72.152815
-402.210538 -41.832351 75.634724
-388.270095 -37.131375 76.484483
-388.574659 -35.059434 79.843780
-369.252585 -29.685547 79.247918
-340.847162 -23.045633 76.414400
-307.630003 -15.959102 72.047533
-299.464280 -13.042286 72.798756
-291.729490 -10.279401 73.510334
-280.753762 -7.144777 73.299287
-270.583144 -4.240088 73.103721
-261.132183 -1.540931 72.921992
-252.327106 0.973764 72.752684
-246.848123 2.993712 73.354346
-241.607888 4.925640 73.929791
-231.603273 7.319071 73.016927
-224.675230 9.284737 72.863587
-220.342851 10.919337 73.397388
-214.074003 12.686255 73.240438
-208.157352 14.353904 73.092305
-202.564028 15.930420 72.952268
-197.268233 17.423077 72.819679
-193.941706 18.716538 73.289145
-187.479067 20.182221 72.574592
-184.479849 21.365752 73.024798
-180.092862 22.594060 72.902233
-175.913467 23.764243 72.785468
-171.927272 24.880333 72.674101
-169.414376 25.893790 73.085221
-164.483261 26.964573 72.466128
-162.187827 27.903650 72.862365
-157.669228 28.872426 72.275756
-155.564347 29.745783 72.658107
-152.455649 30.610380 72.562240
-150.491576 31.431030 72.927893
-146.604472 32.237719 72.381799
-143.847889 33.004385 72.296790
-142.104938 33.747885 72.644952
-138.641396 34.452423 72.136230
-137.025865 35.151007 72.473599
-135.449310 35.832737 72.802828
-130.798928 36.823713 72.189708
0.000000 0.000000 0.000000
-233.935515 -84.291032 -64.858250
-240.031872 -85.820699 -64.253680
-246.426356 -87.425171 -63.619545
-253.141383 -89.110073 -62.953622
-263.762019 -92.610084 -63.105497
-275.246174 -96.394667 -63.269720
-283.512270 -98.517175 -62.519850
-292.252099 -100.761324 -61.727004
-301.507585 -103.137880 -60.887380
-311.325753 -105.658917 -59.996711
-311.577181 -103.772493 -57.158597
-322.018834 -106.392460 -56.123108
-322.278144 -104.446895 -53.196018
-333.404072 -107.173485 -51.998767
-333.671775 -105.164952 -48.976943
-339.649704 -105.541697 -46.763309
-345.827579 -105.931043 -44.475634
-352.215601 -106.333633 -42.110142
-358.824680 -106.750155 -39.662793
-359.110910 -104.602613 -36.431829
-365.957760 -104.995990 -33.841411
-366.249030 -102.810636 -30.553560
-373.346527 -103.178947 -27.811361
-373.643017 -100.954426 -24.464584
-381.004979 -101.295583 -21.561219
-381.306880 -99.030466 -18.153363
-388.948155 -99.342200 -15.078710
-389.255668 -97.034976 -11.607506
-389.563181 -94.727753 -8.136303
-389.870694 -92.420529 -4.665099
-397.818909 -92.612969 -1.276727
-398.132247 -90.262044 2.260225
-398.445584 -87.911120 5.797176
-406.712807 -88.020214 9.452958
-407.032193 -85.623900 13.058197
-407.351580 -83.227587 16.663435
-407.670967 -80.831274 20.268673
-407.990354 -78.434960 23.873912
-408.309741 -76.038647 27.479150
-408.629128 -73.642334 31.084389
-417.259586 -73.472669 35.309964
-409.267902 -68.849707 38.294865
-409.587289 -66.453394 41.900104
-409.906676 -64.057080 45.505342
-410.226063 -61.660767 49.110581
-410.545450 -59.264454 52.715819
-402.832309 -54.998173 55.314499
-403.145647 -52.647248 58.851450
-395.713438 -48.583279 61.287769
-396.020951 -46.276056 64.758973
-396.328464 -43.968832 68.230176
-389.156302 -40.137407 70.450874
-382.241228 -36.443321 72.591971
-375.569661 -32.879318 74.657671
-375.860931 -30.693964 77.945522
-362.907351 -26.115014 78.578269
-339.212135 -19.808680 76.749146
-304.103015 -11.845653 72.046066
-291.253096 -7.927436 71.773176
-279.420382 -4.319387 71.521888
-272.109788 -1.536801 72.165241
-261.720141 1.610676 71.914947
-252.074424 4.532786 71.682574
-243.095495 7.252896 71.466264
-234.716524 9.791252 71.264408
-229.494877 11.842021 71.815252
-221.988275 14.101259 71.612998
-212.632816 16.481372 70.732394
-208.315596 18.216283 71.244609
-204.166369 19.883684 71.736893
-196.179237 21.868924 70.917614
-190.608469 23.545541 70.767519
-185.334031 25.132972 70.625407
-182.018929 26.505569 71.077019
-177.187129 27.950234 70.933057
-172.595327 29.323141 70.796246
-166.772155 30.719481 70.125287
-164.063581 31.874056 70.542046
-160.093502 33.061074 70.423759
-156.302801 34.194460 70.310817
-152.679588 35.277768 70.202865
-150.391778 36.274015 70.585229
-145.893105 37.306865 70.000664
-143.795147 38.233321 70.369886
-140.699050 39.152911 70.268816
-137.726966 40.035668 70.171794
-135.847169 40.877344 70.519302
-132.126182 41.699192 69.988960
-129.484506 42.483812 69.902724
-127.812446 43.247927 70.234129
-125.330418 43.980231 70.146035
-122.126243 44.669335 69.662519
-120.629482 45.367206 69.979186
-116.249437 46.659504 69.823727
0.000000 0.000000 0.000000
-252.276807 -91.380717 -63.072377
-258.096071 -92.787250 -62.376746
-264.193117 -94.260925 -61.647910
-270.588325 -95.806665 -60.883431
-277.304112 -97.429891 -60.080631
-287.937195 -100.877859 -59.982573
-295.565827 -102.745197 -59.102017
-311.906859 -108.650453 -59.761523
-316.444000 -108.822057 -57.983192
-325.701264 -111.116559 -56.952735
-330.648699 -111.332791 -55.052483
-335.746522 -111.555595 -53.094468
-341.001696 -111.785277 -51.076017
-351.778203 -114.356851 -49.743522
-352.014167 -112.266587 -46.846254
-357.787715 -112.518925 -44.628701
-363.751196 -112.779564 -42.338197
-363.994922 -110.620535 -39.345618
-376.286722 -113.327440 -37.523447
-376.538739 -111.094970 -34.429071
-383.136205 -111.344500 -31.843196
-389.965993 -111.602817 -29.166261
-390.226885 -109.291733 -25.962920
-397.306164 -109.517889 -23.132618
-397.571732 -107.165383 -19.871865
-397.837299 -104.812878 -16.611111
-398.102867 -102.460373 -13.350358
-412.805180 -105.115493 -10.392380
-413.080621 -102.675526 -7.010399
-413.356062 -100.235560 -3.628417
-413.631502 -97.795594 -0.246436
-413.906943 -95.355628 3.135545
-414.182384 -92.915662 6.517526
-422.117670 -92.844490 10.123866
-422.398327 -90.358308 13.569905
-422.678985 -87.872127 17.015945
-430.931516 -87.702207 20.894600
-431.217593 -85.168025 24.407171
-431.503669 -82.633844 27.919742
-431.789745 -80.099662 31.432313
-432.075822 -77.565481 34.944884
-432.361898 -75.031299 38.457455
-432.647975 -72.497118 41.970026
-424.924248 -67.982675 44.584259
-425.204905 -65.496493 48.030299
-425.485563 -63.010312 51.476338
-425.766221 -60.524130 54.922377
-426.046879 -58.037948 58.368417
-418.589434 -53.876204 60.629226
-418.864875 -51.436237 64.011208
-419.140316 -48.996271 67.393189
-419.415756 -46.556305 70.775170
-405.007620 -41.295239 71.429236
-405.273188 -38.942733 74.689989
-398.575416 -35.337026 76.544007
-385.611354 -30.726039 76.968465
-373.500253 -26.418428 77.364997
-356.641287 -21.492178 76.487250
-327.058919 -14.790764 72.351432
-314.198201 -10.952757 71.788821
-302.355543 -7.418567 71.270746
-291.414661 -4.153494 70.792120
-281.276332 -1.127926 70.348603
-271.855375 1.683558 69.936469
-265.993450 3.954001 70.376254
-257.607661 6.439153 69.986145
-247.208396 9.038924 68.858250
-242.411774 10.942495 69.279227
-235.505982 12.989046 68.957968
-229.007229 14.914969 68.655644
-222.880558 16.730624 68.370629
-219.033587 18.294081 68.757378
-211.622564 20.066962 67.846904
-208.179844 21.488095 68.222367
-203.174767 22.960978 67.975652
-198.422481 24.359470 67.741399
-192.407084 25.761522 66.952994
-189.603358 26.954741 67.306679
-184.142087 28.210876 66.568504
-182.914984 29.271271 67.442351
-177.857761 30.411208 66.727706
-175.495431 31.439291 67.056059
-170.867561 32.468268 66.383139
-168.703787 33.423833 66.702458
-165.519038 34.354428 66.536647
-162.463579 35.247245 66.377567
-159.529693 36.104537 66.224817
-156.710267 36.928383 66.078026
-153.998730 37.720704 65.936853
-152.279061 38.507817 66.227608
-149.733482 39.246367 66.088023
-148.118388 39.990824 66.368057
-144.915398 40.644240 65.823828
-143.414127 41.345925 66.097078
-140.429985 41.945594 65.577874
-137.580117 42.518282 65.082033
0.000000 0.000000 0.000000
-246.012465 -90.618784 -59.543755
-251.812601 -92.084444 -58.813356
-257.889607 -93.620068 -58.048092
-264.263793 -95.230788 -57.245404
-270.957506 -96.922250 -56.402480
-285.191381 -102.362002 -56.939596
-292.996508 -104.384258 -56.019849
-309.717064 -110.719290 -56.581210
-309.948703 -108.776460 -54.022221
-319.174947 -111.166919 -52.935011
-324.116281 -111.400786 -51.030030
-329.207817 -111.641762 -49.067143
-339.616325 -114.271931 -47.756422
-345.197938 -114.570141 -45.647629
-345.455399 -112.410739 -42.803382
-351.221826 -112.683656 -40.580311
-357.177953 -112.965552 -38.284107
-357.443883 -110.735111 -35.346293
-369.698019 -113.558110 -33.457376
-369.972995 -111.251798 -30.419628
-376.562727 -111.523551 -27.828432
-376.842461 -109.177335 -24.738124
-383.669168 -109.417348 -22.001270
-390.740580 -109.665964 -19.166312
-391.030341 -107.235647 -15.965232
-391.320103 -104.805330 -12.764151
-391.609864 -102.375013 -9.563070
-398.955242 -102.499646 -6.449383
-406.573704 -102.628913 -3.219936
-406.874238 -100.108242 0.100154
-407.174772 -97.587571 3.420243
-407.475306 -95.066900 6.740333
-407.775840 -92.546229 10.060423
-408.076374 -90.025558 13.380513
-408.376908 -87.504887 16.700603
-416.318127 -87.352587 20.429703
-416.624354 -84.784172 23.812678
-416.930580 -82.215757 27.195654
-417.236806 -79.647342 30.578629
-417.543032 -77.078927 33.961605
-417.849259 -74.510512 37.344581
-418.155485 -71.942096 40.727556
-418.461711 -69.373681 44.110532
-418.767937 -66.805266 47.493508
-419.074164 -64.236851 50.876483
-419.380390 -61.668436 54.259459
-419.686616 -59.100021 57.642435
-412.283848 -54.736164 59.861771
-412.584382 -52.215493 63.181861
-405.446324 -48.056914 65.259602
-398.564132 -44.047401 67.262866
-398.853893 -41.617084 70.463947
-392.208949 -37.791552 72.340307
-385.793951 -34.098402 74.151736
-373.337270 -29.350421 74.605886
-361.686906 -24.909775 75.030639
-335.250251 -18.016714 71.970357
-321.299023 -13.577797 71.368246
-308.497691 -9.504747 70.815763
-292.914883 -5.157611 69.371020
-285.819357 -2.289092 69.837005
-279.075114 0.437413 70.279921
-266.350389 3.905426 68.996758
-257.613795 6.685182 68.619702
-249.454538 9.281245 68.267562
-244.366200 11.405795 68.687028
-234.653311 13.990610 67.628767
-230.173629 15.890797 68.035689
-223.704744 17.935033 67.738813
-217.606230 19.862227 67.458935
-213.781365 21.510113 67.838555
-210.097126 23.097412 68.204218
-202.977270 24.900959 67.313193
-197.995087 26.464608 67.070928
-193.264539 27.949282 66.840900
-190.285993 29.272284 67.186755
-184.485758 30.704487 66.414021
-181.786628 31.921425 66.750244
-176.512396 33.206912 66.026307
-174.055304 34.331177 66.353177
-170.445844 35.456199 66.167802
-166.992416 36.532587 65.990441
-163.685119 37.563429 65.820584
-160.514868 38.551554 65.657766
-157.473319 39.499566 65.501558
-154.552790 40.409856 65.351565
-152.704755 41.292680 65.644482
-149.969779 42.139229 65.496551
-147.338142 42.953790 65.354209
-144.804097 43.738145 65.217146
-142.362313 44.493943 65.085073
-140.007843 45.222714 64.957723
-136.965093 45.891712 64.448294
-135.542753 46.604779 64.716212
-134.152777 47.301621 64.978035
-131.411643 48.196279 64.888174
0.000000 0.000000 0.000000
-239.479990 -89.395666 -61.401993
-250.322496 -92.203677 -60.178818
-256.122877 -93.705870 -59.524461
-262.200142 -95.279771 -58.838867
-268.574599 -96.930639 -58.119746
-275.268595 -98.664263 -57.364577
-285.833265 -102.310196 -57.323478
-297.256903 -106.252564 -57.279038
-305.495795 -108.439040 -56.416302
-314.206860 -110.750824 -55.504124
-323.431885 -113.199005 -54.538125
-328.401107 -113.470709 -52.693553
-333.521379 -113.750673 -50.792911
-338.799695 -114.039277 -48.833603
-344.243487 -114.336930 -46.812871
-349.860661 -114.644063 -44.727779
-355.659633 -114.961135 -42.575204
-361.649375 -115.288639 -40.351816
-361.977986 -113.075074 -37.407586
-374.240103 -115.977068 -35.678145
-374.579892 -113.688206 -32.633764
-374.919681 -111.399344 -29.589383
-375.259470 -109.110483 -26.545002
-388.421081 -111.975058 -24.372145
-388.772835 -109.605596 -21.220559
-395.892809 -109.866463 -18.415196
-396.250868 -107.454534 -15.207126
-396.608926 -105.042606 -11.999055
-396.966985 -102.630677 -8.790985
-411.669613 -105.414095 -5.836899
-404.731030 -100.313070 -2.440973
-412.412354 -100.410897 0.817779
-412.783724 -97.909299 4.145119
-413.155095 -95.407700 7.472458
-413.526465 -92.906101 10.799797
-413.897836 -90.404502 14.127137
-421.898280 -90.316505 17.761429
-414.640577 -85.401304 20.781815
-422.655090 -85.218541 24.542154
-423.033494 -82.669560 27.932517
-431.364780 -82.430528 31.903512
-423.790303 -77.571597 34.713241
-424.168708 -75.022615 38.103604
-424.547112 -72.473634 41.493966
-424.925517 -69.924652 44.884329
-425.303922 -67.375670 48.274691
-425.682326 -64.826689 51.665053
-418.354281 -60.385316 54.055208
-418.725652 -57.883717 57.382547
-419.097022 -55.382119 60.709887
-412.022891 -51.194160 62.891357
-405.202333 -47.156319 64.994632
-405.560392 -44.744390 68.202702
-398.973709 -40.891205 70.175428
-399.325464 -38.521743 73.327013
-386.472505 -33.578046 73.919565
-374.465198 -28.959616 74.473130
-352.365988 -22.654996 72.715267
-328.232478 -16.272463 70.160135
-315.453467 -12.124328 69.779092
-307.592669 -8.944025 70.339757
-292.814673 -4.775655 69.104050
-286.098026 -2.013434 69.639789
-276.505013 1.079674 69.327395
-270.559999 3.544424 69.826705
-262.032120 6.275586 69.525587
-254.061646 8.828233 69.244150
-246.595656 11.219312 68.980527
-241.944232 13.194457 69.430262
-232.996947 15.574474 68.500357
-228.881597 17.349598 68.933185
-222.905897 19.250430 68.705789
-217.259753 21.046433 68.490934
-211.916633 22.746045 68.287611
-206.852782 24.356824 68.094914
-202.046862 25.885556 67.912033
-199.032230 27.236631 68.293260
-194.613060 28.632761 68.112980
-190.404669 29.962299 67.941298
-186.392328 31.229901 67.777614
-182.562649 32.439795 67.621382
-180.154714 33.551524 67.967063
-175.403556 34.701537 67.329325
-172.052822 35.760120 67.192632
-168.841901 36.774533 67.061642
-166.820375 37.735294 67.386550
-163.822847 38.675796 67.256052
-160.943802 39.579123 67.130712
-158.176351 40.447436 67.010230
-156.432689 41.293946 67.313000
-152.951248 42.086860 66.782754
-150.482246 42.861532 66.675266
-148.102061 43.608337 66.571644
-145.805982 44.328752 66.471684
-144.358578 45.056166 66.754287
-142.944486 45.766837 67.030387
-140.099378 46.383306 66.557199
0.000000 0.000000 0.000000
-255.109322 -94.128120 -58.483365
-283.539255 -102.708362 -55.996606
-289.103161 -103.900670 -54.909117
-294.878712 -105.466317 -54.184984
-307.026666 -110.493750 -54.802020
-307.277130 -108.827304 -52.630484
-320.687181 -114.286042 -53.199318
-320.950523 -112.533913 -50.916129
-335.828599 -118.489448 -51.422872
-352.412008 -125.127609 -51.987697
-352.705535 -123.174650 -49.442807
-361.890819 -125.724575 -48.365156
-366.843086 -126.036463 -46.472536
-371.945888 -126.357833 -44.522385
-377.206195 -126.689121 -42.512040
-382.631414 -127.030796 -40.438671
-388.229422 -127.383353 -38.299266
-388.555669 -125.212692 -35.470690
-399.977914 -128.123261 -33.809315
-400.314894 -125.881192 -30.887687
-400.651873 -123.639122 -27.966059
-412.874126 -126.595171 -25.992892
-413.222569 -124.276835 -22.971881
-413.571011 -121.958499 -19.950871
-420.188642 -122.253793 -17.271894
-427.039306 -122.559486 -14.498580
-427.400019 -120.159513 -11.371188
-434.502711 -120.433149 -8.442413
-434.869889 -117.990162 -5.258969
-435.237066 -115.547174 -2.075526
-435.604244 -113.104187 1.107918
-435.971421 -110.661199 4.291361
-443.360160 -110.766489 7.559421
-443.734039 -108.278917 10.800962
-444.107917 -105.791346 14.042502
-444.481796 -103.303775 17.284043
-444.855674 -100.816204 20.525583
-445.229552 -98.328632 23.767123
-452.927738 -98.206630 27.457966
-453.308567 -95.672818 30.759763
-453.689395 -93.139005 34.061560
-454.070223 -90.605193 37.363357
-454.451052 -88.071380 40.665154
-454.831880 -85.537568 43.966951
-447.846701 -80.915634 46.457906
-448.220579 -78.428062 49.699446
-448.594457 -75.940491 52.940986
-448.968336 -73.452920 56.182527
-449.342214 -70.965348 59.424067
-442.580616 -66.687423 61.593346
-442.947794 -64.244435 64.776790
-429.759370 -58.575681 65.706702
-430.113842 -56.217232 68.779983
-417.795796 -51.006571 69.544896
-418.138412 -48.727006 72.515385
-406.606620 -43.927406 73.134646
-390.485634 -38.335384 72.621225
-371.078818 -32.298461 71.145692
-358.014154 -27.737575 70.765438
-345.997520 -23.542558 70.415688
-338.596940 -20.336317 70.968676
-328.063281 -16.682418 70.633200
-321.553598 -13.839908 71.147066
-309.205937 -10.141213 70.032632
-303.570704 -7.641971 70.525061
-298.186495 -5.254060 70.995555
-290.434963 -2.599643 70.706208
-283.168935 -0.111481 70.434984
-276.344183 2.225571 70.180232
-272.087796 4.157092 70.606222
-263.866921 6.498256 69.714484
-260.083333 8.241244 70.125264
-256.438853 9.920149 70.520940
-249.355990 11.890894 69.695473
-246.088891 13.418463 70.077957
-241.309297 15.033978 69.873388
-236.767108 16.569250 69.678980
-230.995842 18.137374 68.959875
-228.327545 19.421844 69.317763
-225.742117 20.666423 69.664536
-220.650618 22.016666 68.989187
-218.294177 23.167346 69.325399
-214.813435 24.336134 69.166906
-210.353396 25.497153 68.548461
-207.205451 26.561167 68.413727
-205.224823 27.555867 68.730296
-202.284664 28.543135 68.596418
-199.459960 29.491634 68.467797
-196.744041 30.403605 68.344130
-195.034077 31.280262 68.639513
-191.614353 32.126088 68.110553
-190.029662 32.949601 68.397968
-187.662470 33.739233 68.283712
-186.973612 34.537732 68.952243
-183.940621 35.258478 68.446792
-181.045653 35.946425 67.964343
-178.279497 36.603762 67.503360
0.000000 0.000000 0.000000
-201.959578 -82.574107 -62.516653
-221.795503 -88.074836 -60.204506
-230.740198 -91.546665 -60.298389
-235.689165 -92.180833 -58.875197
-240.756444 -93.462242 -58.142605
-248.659578 -96.293265 -57.954395
-251.583604 -96.200205 -56.577290
-263.177856 -100.896467 -56.923706
-269.536772 -102.547644 -56.053834
-276.214449 -104.281592 -55.140357
-283.235470 -106.104693 -54.179912
-290.627016 -108.024006 -53.168781
-306.334402 -114.163957 -53.383197
-315.023267 -116.479204 -52.262314
-319.719503 -116.653861 -50.422139
-329.199392 -119.147646 -49.162253
-329.533822 -117.018864 -46.576495
-339.609251 -119.600889 -45.159020
-339.954004 -117.406400 -42.493448
-345.409100 -117.609280 -40.355922
-351.037938 -117.818622 -38.150317
-356.848953 -118.034739 -35.873328
-362.851133 -118.257965 -33.521432
-363.218568 -115.919091 -30.680481
-369.427650 -116.110669 -28.202410
-375.847941 -116.308764 -25.640044
-376.227874 -113.890331 -22.702455
-382.876912 -114.053436 -20.000592
-383.263419 -111.593158 -17.012176
-390.153401 -111.718689 -14.162552
-397.290356 -111.848720 -11.210783
-397.690717 -109.300252 -8.115247
-398.091079 -106.751785 -5.019710
-398.491441 -104.203318 -1.924174
-405.910809 -104.198569 1.304810
-399.292164 -99.106384 4.266899
-406.726145 -99.008617 7.608868
-407.133814 -96.413641 10.760897
-407.541482 -93.818665 13.912926
-407.949150 -91.223689 17.064955
-408.356818 -88.628713 20.216984
-416.097491 -88.334361 23.917571
-416.512737 -85.691147 27.128192
-416.927983 -83.047934 30.338814
-417.343230 -80.404720 33.549436
-417.758476 -77.761507 36.760057
-410.802828 -73.058858 39.129157
-411.210496 -70.463882 42.281186
-411.618164 -67.868907 45.433215
-412.025833 -65.273931 48.585244
-412.433501 -62.678955 51.737273
-412.841169 -60.083979 54.889302
-413.248837 -57.489003 58.041331
-406.498677 -53.233974 59.986555
-406.899039 -50.685507 63.082092
-400.379529 -46.625185 64.904314
-394.085626 -42.705370 66.663478
-388.005817 -38.918892 68.362803
-382.129361 -35.259062 70.005289
-364.911499 -29.507715 69.117939
-354.433594 -25.237859 69.460545
-330.385901 -18.689731 66.519234
-313.554546 -13.704739 64.921256
-309.851992 -11.115983 66.280360
-302.445279 -7.992310 66.643331
-291.891397 -4.491379 66.071422
-282.102330 -1.244152 65.540959
-272.997849 1.775984 65.047593
-267.358676 4.214607 65.393168
-259.242717 6.888064 64.931855
-251.645926 9.390502 64.500050
-246.923469 11.466498 64.828198
-242.394168 13.457583 65.142924
-235.826423 15.590703 64.734826
-229.638333 17.600516 64.350318
-223.797902 19.497414 63.987412
-220.151666 21.139553 64.285774
-213.049062 22.988501 63.319514
-209.780672 24.483987 63.613917
-203.386004 26.126939 62.719082
-200.439947 27.496181 63.008804
-196.109122 28.892784 62.728243
-193.395857 30.163629 63.006303
-189.397236 31.443882 62.736693
-185.580653 32.665851 62.479356
-183.187002 33.804309 62.744511
-178.446040 34.950166 61.998298
-176.257197 36.007080 62.258955
-171.906824 37.043851 61.557385
-169.897763 38.028548 61.813363
-166.910374 38.978147 61.604044
-165.034196 39.904540 61.850915
-161.282976 40.766924 61.209744
-158.629759 41.610300 61.023839
-156.962891 42.451573 61.264069
-153.614894 43.204371 60.672459
-152.068844 43.995969 60.908233
-150.559649 44.768697 61.138387
0.000000 0.000000 0.000000
-242.188952 -93.142865 -59.453837
-251.580255 -96.418268 -59.231270
-261.904418 -99.346807 -58.223434
-262.144858 -97.750125 -56.309831
-273.241586 -102.214194 -56.721057
-279.316058 -103.750544 -55.916082
-285.687585 -105.362025 -55.071741
-295.714334 -108.842423 -54.815236
-299.413451 -108.833559 -53.252820
-306.819656 -110.706730 -52.271366
-314.627306 -112.681434 -51.236714
-331.275641 -119.024567 -51.451468
-335.975598 -119.162549 -49.635758
-345.474460 -121.597382 -48.413761
-345.797692 -119.450907 -45.841240
-355.892920 -121.969795 -44.464401
-356.226129 -119.757067 -41.812475
-366.975024 -122.365930 -40.263472
-367.318846 -120.082728 -37.527084
-378.786267 -122.788129 -35.786145
-379.141400 -120.429816 -32.959738
-379.496532 -118.071502 -30.133330
-391.768270 -120.800517 -28.081665
-392.135483 -118.361983 -25.159113
-398.782984 -118.514762 -22.542906
-399.156550 -116.034035 -19.569788
-406.044714 -116.148516 -16.809106
-406.424858 -113.624111 -13.783640
-413.566742 -113.697452 -10.869777
-413.953699 -111.127803 -7.790087
-414.340656 -108.558155 -4.710397
-414.727613 -105.988506 -1.630707
-415.114570 -103.418857 1.448983
-422.545375 -103.307294 4.694014
-422.939394 -100.690750 7.829907
-430.653785 -100.526401 11.253873
-431.055128 -97.861218 14.448060
-431.456471 -95.196036 17.642246
-431.857814 -92.530853 20.836432
-432.259157 -89.865670 24.030618
-432.660500 -87.200488 27.224804
-433.061843 -84.535305 30.418990
-441.114081 -84.061843 34.335670
-433.864529 -79.204940 36.807363
-434.265872 -76.539758 40.001549
-434.667216 -73.874575 43.195735
-435.068559 -71.209393 46.389921
-443.158806 -70.483524 50.609106
-435.871245 -65.879028 52.778294
-436.272588 -63.213845 55.972480
-429.243693 -58.826049 58.004201
-429.637712 -56.209505 61.140094
-422.853707 -52.025885 63.042784
-423.240664 -49.456236 66.122475
-416.688739 -45.465182 67.903939
-410.363541 -41.612237 69.623757
-404.253502 -37.890355 71.285073
-392.281301 -33.172221 71.617340
-375.561271 -27.773406 70.729931
-355.463570 -22.023172 68.824028
-337.605307 -16.913673 67.130495
-325.537270 -12.960968 66.553559
-318.109442 -9.875077 66.939824
-311.058684 -6.945839 67.306479
-300.997065 -3.696992 66.772463
-291.647392 -0.678028 66.276232
-285.856262 1.769296 66.624384
-277.533039 4.437533 66.160732
-267.186902 7.220143 64.978001
-264.907613 9.013453 66.057416
-257.907884 11.241195 65.649084
-251.324824 13.336329 65.265059
-247.219596 15.130065 65.578695
-241.250741 17.015905 65.214816
-233.734111 18.934772 64.238899
-228.494349 20.602385 63.933236
-225.216015 22.082024 64.237290
-220.415600 23.598700 63.944642
-215.853624 25.040041 63.666530
-212.994752 26.351006 63.955119
-208.791076 27.669421 63.687812
-204.783230 28.926416 63.432957
-200.957842 30.126187 63.189704
-198.556677 31.253343 63.461694
-193.806769 32.369004 62.734974
-191.610969 33.415696 63.001796
-188.356999 34.428728 62.786341
-185.236942 35.400072 62.579752
-182.242697 36.332246 62.381493
-180.360447 37.250021 62.633540
-179.509039 38.172102 63.323074
-175.796958 38.981228 62.683875
-172.270719 39.749846 62.076677
-168.916706 40.480923 61.499136
-167.365501 41.265618 61.739023
-165.851275 42.031607 61.973192
-162.802915 42.675513 61.424954
0.000000 0.000000 0.000000
-237.575616 -93.497472 -59.224331
-243.686677 -94.957817 -58.599204
-256.725720 -98.820658 -58.113849
-263.852772 -100.159926 -56.971463
-271.302208 -101.950206 -56.220909
-287.162529 -107.837621 -56.980894
-295.920301 -110.001809 -56.166089
-305.194791 -112.293686 -55.303209
-305.495184 -110.167610 -52.775859
-315.342641 -112.534194 -51.783696
-325.807537 -115.049163 -50.729325
-326.126766 -112.789781 -48.043509
-331.776428 -112.923680 -46.084073
-337.608942 -113.061913 -44.061221
-343.633328 -113.204693 -41.971823
-349.859213 -113.352249 -39.812539
-356.296880 -113.504824 -37.579806
-356.643255 -111.053303 -34.665587
-369.852301 -113.826092 -32.878468
-370.210874 -111.288244 -29.861627
-370.569447 -108.750395 -26.844787
-377.724433 -108.828697 -24.259589
-385.140571 -108.909856 -21.580033
-385.512231 -106.279378 -18.453080
-393.210994 -106.314657 -15.615777
-393.589563 -103.635282 -12.430698
-393.968132 -100.955906 -9.245618
-394.346701 -98.276530 -6.060539
-402.358619 -98.160896 -2.934768
-402.744359 -95.430770 0.310640
-403.130099 -92.700644 3.556048
-411.466279 -92.475125 6.927832
-420.130684 -92.240727 10.432375
-420.531611 -89.403106 13.805566
-420.932539 -86.565486 17.178757
-421.333466 -83.727865 20.551948
-421.734394 -80.890245 23.925139
-430.779004 -80.418490 27.841403
-431.187983 -77.523884 31.282335
-431.596962 -74.629278 34.723267
-432.005941 -71.734672 38.164199
-432.414920 -68.840067 41.605131
-432.823899 -65.945461 45.046063
-433.232878 -63.050855 48.486994
-433.641857 -60.156249 51.927926
-434.050836 -57.261643 55.368858
-434.459815 -54.367037 58.809790
-426.144596 -49.676419 61.030241
-426.545524 -46.838799 64.403433
-426.946451 -44.001179 67.776624
-427.347379 -41.163558 71.149815
-419.330017 -36.818416 73.089151
-419.723204 -34.035581 76.397217
-412.002109 -29.907751 78.200430
-412.387848 -27.177625 81.445838
-397.405362 -22.104081 81.609408
-390.499406 -18.412038 83.222250
-390.864405 -15.828705 86.293160
-293.781822 -0.317195 67.629019
-282.246976 3.125204 67.228256
-271.579459 6.308762 66.857628
-264.985497 8.888791 67.323904
-252.482483 12.007964 66.194130
-246.774190 14.281843 66.643655
-235.881965 16.962135 65.617368
-230.892798 18.984919 66.050436
-223.690423 21.117813 65.781405
-216.921077 23.122470 65.528549
-212.696531 24.865252 65.929327
-206.564887 26.666985 65.684301
-200.774537 28.368432 65.452913
-195.297756 29.977739 65.234055
-188.381530 31.574102 64.462508
-183.545830 33.006134 64.281880
-178.950322 34.367036 64.110223
-176.066680 35.628632 64.465563
-170.411689 36.895646 63.791279
-166.438406 38.072284 63.642864
-163.941550 39.191501 63.981031
-159.018508 40.269595 63.365708
-156.738066 41.308186 63.693173
-152.226548 42.280949 63.112007
-150.135726 43.248229 63.429337
-147.036950 44.158779 63.305507
-144.062294 45.032857 63.186636
-141.204447 45.872611 63.072434
-138.456662 46.680025 62.962630
-135.812701 47.456932 62.856975
-132.397302 48.153133 62.371323
-130.813567 48.925886 62.657204
-128.448069 49.620968 62.562677
-126.957489 50.353675 62.837885
-123.962068 50.939142 62.383412
